//X,Y,Z,R,G,B,Classification,Intensity,GpsTime,ReturnNumber,NumberOfReturns,UserData,PointSourceId
109.45700073,-35.02899933,0.94700003,218,166,118,0.000000,64.000000,-140677.468750,1.000000,2.000000,54.000000,1.000000
118.37999725,-50.63100052,-1.30499995,246,197,165,0.000000,8.000000,-140677.468750,1.000000,2.000000,43.000000,1.000000
112.72100067,-40.25099945,-0.29800001,177,146,118,0.000000,29.000000,-140677.468750,1.000000,2.000000,48.000000,1.000000
110.06999969,-35.27000046,0.95999998,187,138,95,0.000000,5.000000,-140677.468750,1.000000,2.000000,54.000000,1.000000
113.10500336,-39.96300125,2.19000006,174,134,109,0.000000,32.000000,-140677.453125,1.000000,2.000000,61.000000,1.000000
110.41600037,-35.28900146,0.94900000,234,175,117,0.000000,26.000000,-140677.453125,1.000000,2.000000,54.000000,1.000000
113.58100128,-40.55899811,-0.29699999,185,148,106,0.000000,17.000000,-140677.453125,1.000000,2.000000,48.000000,1.000000
113.48300171,-40.02899933,2.03800011,213,175,138,0.000000,5.000000,-140677.453125,1.000000,2.000000,60.000000,1.000000
114.04699707,-40.28099823,2.18600011,187,145,105,0.000000,39.000000,-140677.437500,1.000000,2.000000,61.000000,1.000000
113.41699982,-38.62799835,5.59600019,176,140,106,0.000000,5.000000,-140677.437500,1.000000,2.000000,78.000000,1.000000
111.36900330,-35.62300110,0.96600002,221,168,126,0.000000,32.000000,-140677.437500,1.000000,2.000000,54.000000,1.000000
114.60099792,-40.82099915,-0.23899999,175,144,115,0.000000,8.000000,-140677.437500,1.000000,2.000000,49.000000,1.000000
111.94400024,-35.84299850,0.94499999,231,174,121,0.000000,5.000000,-140677.437500,1.000000,2.000000,54.000000,1.000000
114.96299744,-40.56000137,2.20799994,180,149,120,0.000000,28.000000,-140677.421875,1.000000,2.000000,61.000000,1.000000
112.27100372,-35.88499832,0.95300001,228,169,125,0.000000,17.000000,-140677.421875,1.000000,2.000000,54.000000,1.000000
115.44100189,-41.19900131,-0.24900000,193,154,123,0.000000,7.000000,-140677.421875,1.000000,2.000000,48.000000,1.000000
115.33000183,-40.62400055,2.24699998,187,152,122,0.000000,6.000000,-140677.421875,1.000000,2.000000,61.000000,1.000000
115.91200256,-40.92300034,2.22900009,166,133,102,0.000000,17.000000,-140677.406250,1.000000,2.000000,61.000000,1.000000
115.25499725,-39.22000122,5.68900013,185,144,98,0.000000,9.000000,-140677.406250,1.000000,2.000000,78.000000,1.000000
113.21099854,-36.22700119,0.98000002,223,182,136,0.000000,34.000000,-140677.406250,1.000000,2.000000,54.000000,1.000000
116.45500183,-41.43299866,-0.26300001,196,154,112,0.000000,31.000000,-140677.406250,1.000000,2.000000,48.000000,1.000000
113.79100037,-36.43600082,0.96899998,219,169,116,0.000000,12.000000,-140677.406250,1.000000,2.000000,54.000000,1.000000
116.81300354,-41.15599823,2.21600008,197,151,118,0.000000,36.000000,-140677.390625,1.000000,2.000000,61.000000,1.000000
114.11299896,-36.46500015,0.94499999,192,143,102,0.000000,10.000000,-140677.390625,1.000000,2.000000,54.000000,1.000000
117.29199982,-41.76699829,-0.23500000,178,139,100,0.000000,25.000000,-140677.390625,1.000000,2.000000,49.000000,1.000000
117.75900269,-41.50500107,2.25200009,233,185,137,0.000000,15.000000,-140677.375000,1.000000,2.000000,61.000000,1.000000
117.11000061,-39.82600021,5.67600012,201,162,123,0.000000,5.000000,-140677.375000,1.000000,2.000000,78.000000,1.000000
115.06800079,-36.82099915,1.03600001,206,155,124,0.000000,34.000000,-140677.375000,1.000000,2.000000,54.000000,1.000000
118.29199982,-42.04499817,-0.24400000,187,152,120,0.000000,35.000000,-140677.375000,1.000000,2.000000,48.000000,1.000000
118.62899780,-41.77899933,2.24900007,194,157,115,0.000000,19.000000,-140677.359375,1.000000,2.000000,61.000000,1.000000
117.97499847,-40.09999847,5.63299990,184,145,106,0.000000,7.000000,-140677.359375,1.000000,2.000000,78.000000,1.000000
115.94200134,-37.10200119,1.03799999,210,156,110,0.000000,26.000000,-140677.359375,1.000000,2.000000,54.000000,1.000000
118.97799683,-41.85400009,2.25000000,177,142,110,0.000000,43.000000,-140677.359375,1.000000,2.000000,61.000000,1.000000
116.29299927,-37.18299866,1.01800001,235,182,128,0.000000,24.000000,-140677.359375,1.000000,2.000000,54.000000,1.000000
119.50099945,-42.46799850,-0.24400000,224,178,144,0.000000,29.000000,-140677.359375,1.000000,2.000000,48.000000,1.000000
119.95500183,-42.14400101,2.25699997,206,170,122,0.000000,29.000000,-140677.343750,1.000000,2.000000,61.000000,1.000000
119.30100250,-40.46699905,5.65000010,190,151,108,0.000000,5.000000,-140677.343750,1.000000,2.000000,78.000000,1.000000
117.26899719,-37.46799850,1.03400004,200,155,98,0.000000,21.000000,-140677.343750,1.000000,2.000000,54.000000,1.000000
120.37799835,-42.74399948,-0.24100000,203,164,125,0.000000,20.000000,-140677.343750,1.000000,2.000000,48.000000,1.000000
120.75399780,-42.81499863,-0.25299999,200,161,118,0.000000,8.000000,-140677.328125,1.000000,2.000000,48.000000,1.000000
121.20899963,-42.54899979,2.26600003,216,167,127,0.000000,13.000000,-140677.328125,1.000000,2.000000,61.000000,1.000000
118.52999878,-37.88899994,1.01499999,216,167,126,0.000000,18.000000,-140677.328125,1.000000,2.000000,54.000000,1.000000
121.77200317,-42.80099869,2.31699991,187,149,112,0.000000,20.000000,-140677.312500,1.000000,3.000000,61.000000,1.000000
121.74199677,-43.11500168,-0.22600000,188,153,99,0.000000,7.000000,-140677.312500,2.000000,3.000000,49.000000,1.000000
119.08499908,-38.13100052,1.04999995,214,165,124,0.000000,23.000000,-140677.312500,1.000000,2.000000,54.000000,1.000000
122.07599640,-42.84999847,2.29200006,207,170,118,0.000000,21.000000,-140677.312500,1.000000,2.000000,61.000000,1.000000
121.42299652,-41.16600037,5.76800013,202,160,120,0.000000,6.000000,-140677.312500,1.000000,2.000000,78.000000,1.000000
119.38999939,-38.17599869,1.06099999,243,186,141,0.000000,22.000000,-140677.312500,1.000000,2.000000,55.000000,1.000000
122.43599701,-42.91600037,2.30399990,183,148,106,0.000000,9.000000,-140677.296875,1.000000,2.000000,61.000000,1.000000
119.74700165,-38.24399948,1.00899994,214,171,128,0.000000,5.000000,-140677.296875,1.000000,2.000000,54.000000,1.000000
120.31700134,-38.54199982,1.09599996,216,158,118,0.000000,7.000000,-140677.296875,1.000000,2.000000,55.000000,1.000000
121.95700073,-39.01499939,1.08000004,217,164,120,0.000000,39.000000,-140677.265625,1.000000,2.000000,55.000000,1.000000
124.26899719,-52.49100113,-1.30400002,199,158,126,0.000000,7.000000,-140677.359375,1.000000,2.000000,43.000000,1.000000
123.89499664,-51.27899933,-1.41299999,193,157,121,0.000000,11.000000,-140677.359375,1.000000,2.000000,42.000000,1.000000
122.89900208,-49.47100067,-1.36699998,214,163,136,0.000000,9.000000,-140677.359375,1.000000,2.000000,43.000000,1.000000
125.13500214,-50.16799927,-1.36000001,207,172,132,0.000000,6.000000,-140677.328125,1.000000,2.000000,43.000000,1.000000
127.00000000,-52.28599930,-1.42600000,191,146,107,0.000000,7.000000,-140677.312500,1.000000,2.000000,42.000000,1.000000
122.55500031,-43.49300003,-0.19100000,207,178,122,0.000000,8.000000,-140677.296875,1.000000,2.000000,49.000000,1.000000
122.98500061,-43.55199814,-0.20400000,222,174,125,0.000000,19.000000,-140677.296875,1.000000,2.000000,49.000000,1.000000
123.55300140,-43.78400040,-0.18400000,171,134,105,0.000000,21.000000,-140677.281250,1.000000,2.000000,49.000000,1.000000
123.44599915,-43.22499847,2.37100005,184,149,111,0.000000,10.000000,-140677.281250,1.000000,2.000000,62.000000,1.000000
123.86399841,-43.84600067,-0.20000000,160,125,93,0.000000,14.000000,-140677.281250,1.000000,2.000000,49.000000,1.000000
124.24400330,-43.64599991,2.26099992,177,141,105,0.000000,6.000000,-140677.265625,1.000000,3.000000,61.000000,1.000000
124.21700287,-43.94900131,-0.19000000,168,125,83,0.000000,23.000000,-140677.265625,2.000000,3.000000,49.000000,1.000000
129.57499695,-53.12400055,-1.30799997,203,162,130,0.000000,6.000000,-140677.265625,1.000000,2.000000,43.000000,1.000000
124.65299988,-43.70399857,2.34999990,188,142,118,0.000000,32.000000,-140677.265625,1.000000,2.000000,61.000000,1.000000
125.18000031,-44.26599884,-0.15300000,202,155,125,0.000000,19.000000,-140677.250000,1.000000,2.000000,49.000000,1.000000
125.49900055,-44.01300049,2.36899996,190,150,114,0.000000,20.000000,-140677.250000,1.000000,2.000000,62.000000,1.000000
122.81500244,-39.33700180,1.14100003,225,168,125,0.000000,14.000000,-140677.250000,1.000000,2.000000,55.000000,1.000000
125.83599854,-44.10300064,2.39899993,190,147,105,0.000000,13.000000,-140677.234375,1.000000,3.000000,62.000000,1.000000
125.80899811,-44.41299820,-0.11000000,213,164,132,0.000000,6.000000,-140677.234375,2.000000,3.000000,49.000000,1.000000
123.14800262,-39.42900085,1.10200000,231,184,142,0.000000,22.000000,-140677.234375,1.000000,2.000000,55.000000,1.000000
126.34300232,-44.73500061,-0.16800000,211,157,121,0.000000,5.000000,-140677.234375,1.000000,2.000000,49.000000,1.000000
126.23200226,-44.17699814,2.34800005,190,145,114,0.000000,20.000000,-140677.234375,1.000000,2.000000,62.000000,1.000000
123.54699707,-39.49900055,1.10800004,240,177,133,0.000000,13.000000,-140677.234375,1.000000,2.000000,55.000000,1.000000
126.75399780,-44.74800110,-0.12600000,214,164,127,0.000000,18.000000,-140677.234375,1.000000,2.000000,49.000000,1.000000
127.06999969,-44.50999832,2.41599989,203,157,123,0.000000,16.000000,-140677.218750,1.000000,2.000000,62.000000,1.000000
126.40499878,-42.84099960,5.70300007,201,157,122,0.000000,5.000000,-140677.218750,1.000000,2.000000,78.000000,1.000000
124.38800049,-39.84500122,1.13100004,207,155,108,0.000000,17.000000,-140677.218750,1.000000,2.000000,55.000000,1.000000
127.39900208,-44.61000061,2.39800000,187,146,114,0.000000,22.000000,-140677.218750,1.000000,2.000000,62.000000,1.000000
124.71800232,-39.93999863,1.15300000,189,152,110,0.000000,41.000000,-140677.218750,1.000000,2.000000,55.000000,1.000000
132.71699524,-54.10300064,-1.25500000,216,178,139,0.000000,6.000000,-140677.203125,1.000000,2.000000,43.000000,1.000000
127.91000366,-45.25299835,-0.12899999,174,138,104,0.000000,10.000000,-140677.203125,1.000000,2.000000,49.000000,1.000000
127.78800201,-44.67300034,2.40899992,203,159,124,0.000000,17.000000,-140677.203125,1.000000,2.000000,62.000000,1.000000
127.12899780,-42.99399948,5.84999990,215,171,132,0.000000,5.000000,-140677.203125,1.000000,2.000000,79.000000,1.000000
125.10600281,-40.00400162,1.14800000,196,151,110,0.000000,10.000000,-140677.203125,1.000000,2.000000,55.000000,1.000000
128.30900574,-45.26100159,-0.13200000,194,150,115,0.000000,21.000000,-140677.203125,1.000000,2.000000,49.000000,1.000000
128.60899353,-45.00699997,2.43600011,177,130,104,0.000000,24.000000,-140677.187500,1.000000,2.000000,62.000000,1.000000
125.92800140,-40.34400177,1.13499999,188,134,100,0.000000,20.000000,-140677.187500,1.000000,2.000000,55.000000,1.000000
128.93499756,-45.11000061,2.40199995,198,151,109,0.000000,8.000000,-140677.187500,1.000000,2.000000,62.000000,1.000000
126.25599670,-40.43899918,1.17799997,210,158,111,0.000000,10.000000,-140677.187500,1.000000,2.000000,55.000000,1.000000
134.25500488,-54.62200165,-1.29400003,225,176,135,0.000000,5.000000,-140677.171875,1.000000,2.000000,43.000000,1.000000
129.32899475,-45.18899918,2.43000007,201,155,119,0.000000,23.000000,-140677.171875,1.000000,2.000000,62.000000,1.000000
128.66400146,-43.52000046,5.73999977,203,152,121,0.000000,10.000000,-140677.171875,1.000000,2.000000,78.000000,1.000000
126.64800262,-40.51900101,1.17900002,207,148,106,0.000000,21.000000,-140677.171875,1.000000,2.000000,55.000000,1.000000
133.64900208,-52.84799957,-1.28400004,225,171,124,0.000000,6.000000,-140677.171875,1.000000,2.000000,43.000000,1.000000
129.82600403,-45.77500153,-0.13000000,193,151,113,0.000000,12.000000,-140677.171875,1.000000,2.000000,49.000000,1.000000
130.08999634,-45.84999847,-0.08100000,194,155,116,0.000000,13.000000,-140677.156250,1.000000,2.000000,49.000000,1.000000
130.40899658,-45.96599960,-0.09500000,211,169,127,0.000000,29.000000,-140677.156250,1.000000,2.000000,49.000000,1.000000
130.81700134,-45.72299957,2.46300006,186,152,117,0.000000,9.000000,-140677.140625,1.000000,3.000000,62.000000,1.000000
130.79200745,-46.03799820,-0.08500000,192,152,117,0.000000,9.000000,-140677.140625,2.000000,3.000000,49.000000,1.000000
131.34700012,-46.32600021,-0.10700000,221,167,120,0.000000,7.000000,-140677.140625,1.000000,2.000000,49.000000,1.000000
131.22500610,-45.74599838,2.45600009,216,168,130,0.000000,14.000000,-140677.140625,1.000000,2.000000,62.000000,1.000000
130.56900024,-44.09600067,5.75600004,204,161,127,0.000000,9.000000,-140677.140625,1.000000,2.000000,78.000000,1.000000
128.55599976,-41.09500122,1.20299995,198,147,104,0.000000,20.000000,-140677.140625,1.000000,2.000000,55.000000,1.000000
131.63699341,-46.40100098,-0.04700000,207,159,119,0.000000,14.000000,-140677.125000,1.000000,2.000000,50.000000,1.000000
128.83999634,-41.16899872,1.20400000,212,156,119,0.000000,7.000000,-140677.125000,1.000000,2.000000,55.000000,1.000000
135.77000427,-53.56600189,-1.17700005,236,177,143,0.000000,5.000000,-140677.125000,1.000000,2.000000,44.000000,1.000000
131.96200562,-46.52399826,-0.05700000,215,173,133,0.000000,23.000000,-140677.125000,1.000000,2.000000,50.000000,1.000000
131.83799744,-45.93999863,2.49399996,187,152,112,0.000000,6.000000,-140677.125000,1.000000,2.000000,62.000000,1.000000
129.16499329,-41.28599930,1.25000000,205,151,117,0.000000,20.000000,-140677.125000,1.000000,2.000000,56.000000,1.000000
132.34199524,-46.61600113,-0.04000000,193,150,115,0.000000,20.000000,-140677.109375,1.000000,2.000000,50.000000,1.000000
132.76800537,-46.33300018,2.54900002,203,159,122,0.000000,15.000000,-140677.109375,1.000000,2.000000,63.000000,1.000000
130.08700562,-41.66999817,1.25000000,176,133,99,0.000000,11.000000,-140677.109375,1.000000,2.000000,56.000000,1.000000
133.06100464,-46.40900040,2.54399991,194,155,112,0.000000,20.000000,-140677.109375,1.000000,2.000000,63.000000,1.000000
132.39500427,-44.74800110,5.80999994,199,164,126,0.000000,6.000000,-140677.109375,1.000000,2.000000,79.000000,1.000000
130.38299561,-41.74399948,1.29999995,188,147,117,0.000000,25.000000,-140677.109375,1.000000,2.000000,56.000000,1.000000
133.39999390,-46.50299835,2.54299998,195,161,115,0.000000,23.000000,-140677.093750,1.000000,2.000000,62.000000,1.000000
130.72099304,-41.83900070,1.27100003,187,138,105,0.000000,20.000000,-140677.093750,1.000000,2.000000,56.000000,1.000000
133.92599487,-47.18399811,-0.05000000,175,136,119,0.000000,8.000000,-140677.093750,1.000000,2.000000,50.000000,1.000000
133.79899597,-46.59299850,2.53200006,174,145,103,0.000000,14.000000,-140677.093750,1.000000,2.000000,62.000000,1.000000
133.13900757,-44.93000031,5.88500023,186,149,104,0.000000,5.000000,-140677.093750,1.000000,2.000000,79.000000,1.000000
131.11999512,-41.92699814,1.27199996,186,153,122,0.000000,23.000000,-140677.093750,1.000000,2.000000,56.000000,1.000000
134.33200073,-47.21400070,-0.01500000,182,151,105,0.000000,15.000000,-140677.078125,1.000000,2.000000,50.000000,1.000000
134.62100220,-47.29899979,-0.02100000,168,132,96,0.000000,10.000000,-140677.078125,1.000000,2.000000,50.000000,1.000000
134.96099854,-47.41899872,-0.02700000,203,169,132,0.000000,22.000000,-140677.062500,1.000000,2.000000,50.000000,1.000000
135.37500000,-47.19200134,2.56999993,183,145,108,0.000000,12.000000,-140677.062500,1.000000,2.000000,63.000000,1.000000
132.68200684,-42.50199890,1.31700003,183,140,108,0.000000,20.000000,-140677.062500,1.000000,2.000000,56.000000,1.000000
135.87899780,-47.77500153,0.06100000,176,144,105,0.000000,15.000000,-140677.046875,1.000000,2.000000,50.000000,1.000000
135.76600647,-47.22100067,2.57200003,179,146,105,0.000000,21.000000,-140677.046875,1.000000,2.000000,63.000000,1.000000
133.07200623,-42.52999878,1.32299995,196,154,116,0.000000,23.000000,-140677.046875,1.000000,2.000000,56.000000,1.000000
140.97300720,-56.72200012,-1.14900005,183,144,105,0.000000,5.000000,-140677.046875,1.000000,2.000000,44.000000,1.000000
136.15600586,-47.85699844,0.03600000,203,175,138,0.000000,16.000000,-140677.046875,1.000000,2.000000,50.000000,1.000000
133.35200500,-42.61500168,1.31299996,174,138,104,0.000000,12.000000,-140677.046875,1.000000,2.000000,56.000000,1.000000
136.48599243,-47.97999954,0.04400000,170,146,100,0.000000,18.000000,-140677.031250,1.000000,2.000000,50.000000,1.000000
136.37500000,-47.42200089,2.59999990,183,154,114,0.000000,16.000000,-140677.031250,1.000000,2.000000,63.000000,1.000000
135.69700623,-45.74300003,5.86299992,175,134,102,0.000000,5.000000,-140677.031250,1.000000,2.000000,79.000000,1.000000
133.68200684,-42.73699951,1.33500004,204,163,119,0.000000,20.000000,-140677.031250,1.000000,2.000000,56.000000,1.000000
136.87500000,-48.08300018,0.01000000,193,150,116,0.000000,17.000000,-140677.031250,1.000000,2.000000,50.000000,1.000000
137.29100037,-47.80199814,2.56100011,178,149,109,0.000000,13.000000,-140677.015625,1.000000,2.000000,62.000000,1.000000
134.60299683,-43.10900116,1.42100000,184,149,117,0.000000,8.000000,-140677.015625,1.000000,2.000000,56.000000,1.000000
137.56900024,-47.88700104,2.64499998,181,147,109,0.000000,14.000000,-140677.015625,1.000000,2.000000,63.000000,1.000000
134.87899780,-43.21099854,1.37300003,187,143,104,0.000000,34.000000,-140677.015625,1.000000,2.000000,56.000000,1.000000
137.88699341,-48.00099945,2.65300012,174,136,99,0.000000,11.000000,-140677.000000,1.000000,3.000000,63.000000,1.000000
137.86500549,-48.31999969,0.07200000,197,154,119,0.000000,5.000000,-140677.000000,2.000000,3.000000,50.000000,1.000000
135.19500732,-43.31999969,1.37800002,196,154,112,0.000000,7.000000,-140677.000000,1.000000,2.000000,56.000000,1.000000
138.28399658,-48.09299850,2.65100002,178,154,118,0.000000,33.000000,-140677.000000,1.000000,2.000000,63.000000,1.000000
135.59100342,-43.41199875,1.37899995,195,151,114,0.000000,24.000000,-140677.000000,1.000000,2.000000,56.000000,1.000000
138.80499268,-48.68799973,0.08300000,209,165,136,0.000000,16.000000,-140676.984375,1.000000,2.000000,50.000000,1.000000
138.68699646,-48.11399841,2.69400001,183,145,106,0.000000,8.000000,-140676.984375,1.000000,2.000000,63.000000,1.000000
135.99400330,-43.43500137,1.40100002,194,160,114,0.000000,8.000000,-140676.984375,1.000000,2.000000,56.000000,1.000000
139.09700012,-48.77199936,0.10300000,211,165,131,0.000000,20.000000,-140676.984375,1.000000,2.000000,50.000000,1.000000
139.43499756,-48.89699936,0.08900000,211,168,134,0.000000,41.000000,-140676.984375,1.000000,2.000000,50.000000,1.000000
139.83599854,-48.99700165,0.10300000,200,159,127,0.000000,17.000000,-140676.968750,1.000000,2.000000,50.000000,1.000000
140.25900269,-48.72399902,2.72300005,183,140,98,0.000000,25.000000,-140676.968750,1.000000,2.000000,63.000000,1.000000
137.57400513,-44.06000137,1.47500002,218,168,119,0.000000,10.000000,-140676.968750,1.000000,2.000000,57.000000,1.000000
140.52799988,-48.82199860,2.74699998,189,151,115,0.000000,32.000000,-140676.953125,1.000000,2.000000,63.000000,1.000000
137.84500122,-44.17499924,1.40300000,215,171,124,0.000000,11.000000,-140676.953125,1.000000,2.000000,56.000000,1.000000
140.83000183,-49.29100037,-0.00100000,220,167,135,0.000000,6.000000,-140676.953125,1.000000,2.000000,50.000000,1.000000
141.24000549,-49.03499985,2.72799993,231,176,135,0.000000,24.000000,-140676.937500,1.000000,2.000000,63.000000,1.000000
138.55799866,-44.37900162,1.47200000,208,165,120,0.000000,16.000000,-140676.937500,1.000000,2.000000,57.000000,1.000000
141.76400757,-49.62500000,0.15500000,230,174,139,0.000000,36.000000,-140676.937500,1.000000,2.000000,51.000000,1.000000
140.97700500,-47.41799927,5.88700008,212,167,144,0.000000,8.000000,-140676.937500,1.000000,2.000000,79.000000,1.000000
138.96600342,-44.40399933,1.48599994,237,182,141,0.000000,19.000000,-140676.937500,1.000000,2.000000,57.000000,1.000000
142.05799866,-49.72700119,0.17900001,208,164,125,0.000000,28.000000,-140676.921875,1.000000,2.000000,51.000000,1.000000
139.25900269,-44.50799942,1.49100006,223,170,128,0.000000,6.000000,-140676.921875,1.000000,2.000000,57.000000,1.000000
142.38299561,-49.87500000,0.19100000,209,155,121,0.000000,24.000000,-140676.921875,1.000000,2.000000,51.000000,1.000000
142.27000427,-49.31399918,2.78800011,201,163,124,0.000000,12.000000,-140676.921875,1.000000,2.000000,64.000000,1.000000
141.59599304,-47.66400146,5.95800018,224,171,131,0.000000,7.000000,-140676.921875,1.000000,2.000000,80.000000,1.000000
139.58200073,-44.66199875,1.46500003,208,158,109,0.000000,28.000000,-140676.921875,1.000000,2.000000,57.000000,1.000000
142.75000000,-49.99700165,0.20000000,209,169,134,0.000000,20.000000,-140676.906250,1.000000,2.000000,51.000000,1.000000
142.63699341,-49.44100189,2.75200009,204,157,113,0.000000,11.000000,-140676.906250,1.000000,2.000000,64.000000,1.000000
141.96299744,-47.78200150,6.00000000,206,152,114,0.000000,6.000000,-140676.906250,1.000000,2.000000,80.000000,1.000000
139.94900513,-44.78300095,1.49199998,194,141,107,0.000000,37.000000,-140676.906250,1.000000,2.000000,57.000000,1.000000
143.13499451,-50.04800034,0.21100000,177,146,100,0.000000,11.000000,-140676.906250,1.000000,2.000000,51.000000,1.000000
143.41499329,-50.13999939,0.19300000,178,143,113,0.000000,13.000000,-140676.890625,1.000000,2.000000,51.000000,1.000000
143.74499512,-50.25799942,0.19700000,206,168,129,0.000000,24.000000,-140676.890625,1.000000,2.000000,51.000000,1.000000
140.93899536,-45.03499985,1.49800003,219,172,130,0.000000,12.000000,-140676.890625,1.000000,2.000000,57.000000,1.000000
144.12699890,-50.36000061,0.29499999,181,147,110,0.000000,14.000000,-140676.875000,1.000000,2.000000,51.000000,1.000000
141.32000732,-45.14400101,1.56200004,209,158,115,0.000000,7.000000,-140676.875000,1.000000,2.000000,57.000000,1.000000
144.52600098,-50.10900116,2.84400010,184,155,113,0.000000,30.000000,-140676.875000,1.000000,2.000000,64.000000,1.000000
144.78700256,-50.22200012,2.83999991,174,148,99,0.000000,23.000000,-140676.859375,1.000000,2.000000,64.000000,1.000000
145.05900574,-50.68399811,0.23500000,181,149,111,0.000000,22.000000,-140676.859375,1.000000,2.000000,51.000000,1.000000
142.24899292,-45.45399857,1.60699999,222,162,126,0.000000,6.000000,-140676.859375,1.000000,2.000000,57.000000,1.000000
145.42100525,-50.78599930,0.29300001,183,153,103,0.000000,6.000000,-140676.859375,1.000000,2.000000,51.000000,1.000000
145.82499695,-50.50999832,2.88000011,188,154,106,0.000000,32.000000,-140676.843750,1.000000,2.000000,64.000000,1.000000
146.10000610,-50.59799957,2.89499998,174,139,101,0.000000,36.000000,-140676.843750,1.000000,2.000000,64.000000,1.000000
143.40100098,-45.94699860,1.52900004,235,185,136,0.000000,6.000000,-140676.843750,1.000000,2.000000,57.000000,1.000000
146.42500305,-50.72000122,2.90300012,219,167,120,0.000000,22.000000,-140676.828125,1.000000,2.000000,64.000000,1.000000
146.78799438,-50.82799911,2.92499995,209,166,121,0.000000,19.000000,-140676.828125,1.000000,2.000000,64.000000,1.000000
147.27000427,-51.45600128,0.44800001,208,164,129,0.000000,8.000000,-140676.812500,1.000000,2.000000,52.000000,1.000000
147.14399719,-50.88700104,2.93099999,207,165,123,0.000000,36.000000,-140676.812500,1.000000,2.000000,64.000000,1.000000
146.46600342,-49.24900055,6.03000021,177,143,106,0.000000,7.000000,-140676.812500,1.000000,2.000000,80.000000,1.000000
144.44700623,-46.23500061,1.66499996,218,162,111,0.000000,15.000000,-140676.812500,1.000000,2.000000,58.000000,1.000000
147.52000427,-51.56600189,0.38200000,203,165,128,0.000000,8.000000,-140676.812500,1.000000,2.000000,52.000000,1.000000
147.39500427,-50.98899841,2.95000005,213,165,117,0.000000,30.000000,-140676.812500,1.000000,2.000000,65.000000,1.000000
144.69700623,-46.34199905,1.63900006,230,178,138,0.000000,37.000000,-140676.812500,1.000000,2.000000,58.000000,1.000000
147.71600342,-51.11000061,2.95199990,222,187,149,0.000000,44.000000,-140676.796875,1.000000,2.000000,65.000000,1.000000
145.02099609,-46.47200012,1.63699996,211,158,124,0.000000,6.000000,-140676.796875,1.000000,2.000000,58.000000,1.000000
148.23199463,-51.79199982,0.36399999,185,139,105,0.000000,16.000000,-140676.796875,1.000000,2.000000,52.000000,1.000000
148.10099792,-51.19900131,2.97300005,206,155,108,0.000000,19.000000,-140676.796875,1.000000,2.000000,65.000000,1.000000
147.42999268,-49.57099915,6.07999992,215,168,124,0.000000,6.000000,-140676.796875,1.000000,2.000000,80.000000,1.000000
145.40600586,-46.55899811,1.67100000,216,171,132,0.000000,14.000000,-140676.796875,1.000000,2.000000,58.000000,1.000000
148.61099243,-51.82500076,0.37400001,204,163,135,0.000000,24.000000,-140676.781250,1.000000,2.000000,52.000000,1.000000
145.78300476,-46.58900070,1.68499994,201,152,112,0.000000,20.000000,-140676.781250,1.000000,2.000000,58.000000,1.000000
148.86399841,-51.93399811,0.34999999,195,151,124,0.000000,27.000000,-140676.781250,1.000000,2.000000,52.000000,1.000000
146.03500366,-46.69599915,1.68099999,234,177,134,0.000000,32.000000,-140676.781250,1.000000,2.000000,58.000000,1.000000
149.16400146,-52.06800079,0.39600000,183,147,125,0.000000,20.000000,-140676.765625,1.000000,2.000000,52.000000,1.000000
149.03300476,-51.47900009,2.97099996,212,169,124,0.000000,13.000000,-140676.765625,1.000000,2.000000,65.000000,1.000000
148.36000061,-49.84700012,6.09600019,201,163,114,0.000000,7.000000,-140676.765625,1.000000,2.000000,80.000000,1.000000
146.33299255,-46.83399963,1.69400001,229,178,131,0.000000,23.000000,-140676.765625,1.000000,2.000000,58.000000,1.000000
149.52699280,-52.19499969,0.38299999,189,150,119,0.000000,16.000000,-140676.765625,1.000000,2.000000,52.000000,1.000000
149.39700317,-51.59999847,3.01900005,210,168,128,0.000000,9.000000,-140676.765625,1.000000,2.000000,65.000000,1.000000
146.69500732,-46.96099854,1.69200003,221,172,129,0.000000,20.000000,-140676.765625,1.000000,2.000000,58.000000,1.000000
149.89399719,-52.23500061,0.40200001,194,152,110,0.000000,23.000000,-140676.750000,1.000000,2.000000,52.000000,1.000000
147.06700134,-47.01599884,1.67200005,228,176,139,0.000000,13.000000,-140676.750000,1.000000,2.000000,58.000000,1.000000
150.15400696,-52.32899857,0.37099999,200,156,121,0.000000,24.000000,-140676.750000,1.000000,2.000000,52.000000,1.000000
147.32800293,-47.10400009,1.73000002,232,196,148,0.000000,13.000000,-140676.750000,1.000000,2.000000,58.000000,1.000000
150.45700073,-52.44800186,0.41000000,202,165,120,0.000000,43.000000,-140676.734375,1.000000,2.000000,52.000000,1.000000
147.62699890,-47.22000122,1.73699999,214,157,114,0.000000,41.000000,-140676.734375,1.000000,2.000000,58.000000,1.000000
150.81399536,-52.54999924,0.42300001,183,150,115,0.000000,25.000000,-140676.734375,1.000000,2.000000,52.000000,1.000000
147.98100281,-47.31700134,1.76999998,217,161,112,0.000000,23.000000,-140676.734375,1.000000,2.000000,58.000000,1.000000
151.20399475,-52.27500153,3.06999993,187,141,105,0.000000,6.000000,-140676.734375,1.000000,3.000000,65.000000,1.000000
151.18299866,-52.59500122,0.46599999,213,165,129,0.000000,6.000000,-140676.734375,2.000000,3.000000,52.000000,1.000000
151.44500732,-52.69599915,0.53100002,188,148,112,0.000000,6.000000,-140676.718750,1.000000,2.000000,52.000000,1.000000
151.74699402,-52.84299850,0.45600000,157,135,96,0.000000,16.000000,-140676.718750,1.000000,2.000000,52.000000,1.000000
148.91299438,-47.61999893,1.76800001,241,185,134,0.000000,16.000000,-140676.718750,1.000000,2.000000,58.000000,1.000000
152.09800720,-52.95600128,0.47799999,187,148,107,0.000000,17.000000,-140676.703125,1.000000,2.000000,52.000000,1.000000
149.26499939,-47.73699951,1.78999996,215,167,118,0.000000,24.000000,-140676.703125,1.000000,2.000000,58.000000,1.000000
152.75500488,-52.79100037,3.10100007,201,152,122,0.000000,7.000000,-140676.687500,1.000000,2.000000,65.000000,1.000000
153.03599548,-53.25500107,0.49500000,199,161,125,0.000000,13.000000,-140676.687500,1.000000,2.000000,52.000000,1.000000
152.23399353,-51.04600143,6.17000008,207,159,121,0.000000,5.000000,-140676.687500,1.000000,2.000000,81.000000,1.000000
150.19500732,-48.02700043,1.82299995,232,176,127,0.000000,25.000000,-140676.687500,1.000000,2.000000,59.000000,1.000000
153.38900757,-53.38100052,0.51300001,188,151,107,0.000000,20.000000,-140676.671875,1.000000,2.000000,52.000000,1.000000
150.54899597,-48.15999985,1.80999994,198,149,109,0.000000,20.000000,-140676.671875,1.000000,2.000000,58.000000,1.000000
153.75599670,-53.44100189,0.50300002,178,148,114,0.000000,6.000000,-140676.671875,1.000000,2.000000,52.000000,1.000000
150.91499329,-48.21599960,1.83599997,216,163,121,0.000000,17.000000,-140676.671875,1.000000,2.000000,59.000000,1.000000
154.03300476,-53.56700134,0.48400000,218,169,129,0.000000,6.000000,-140676.656250,1.000000,2.000000,52.000000,1.000000
151.19200134,-48.33700180,1.88000000,211,158,116,0.000000,13.000000,-140676.656250,1.000000,2.000000,59.000000,1.000000
154.34700012,-53.69699860,0.54699999,189,155,120,0.000000,36.000000,-140676.656250,1.000000,2.000000,53.000000,1.000000
151.50999451,-48.48799896,1.87600005,227,170,127,0.000000,14.000000,-140676.656250,1.000000,2.000000,59.000000,1.000000
154.72000122,-53.81999969,0.55199999,185,152,117,0.000000,24.000000,-140676.640625,1.000000,2.000000,53.000000,1.000000
153.91499329,-51.62500000,6.12200022,187,144,109,0.000000,7.000000,-140676.640625,1.000000,2.000000,80.000000,1.000000
151.88200378,-48.60900116,1.88499999,243,191,144,0.000000,33.000000,-140676.640625,1.000000,2.000000,59.000000,1.000000
155.09800720,-53.88600159,0.54799998,186,148,111,0.000000,10.000000,-140676.640625,1.000000,2.000000,53.000000,1.000000
152.25300598,-48.66799927,1.87199998,238,182,131,0.000000,17.000000,-140676.640625,1.000000,2.000000,59.000000,1.000000
155.35400391,-53.98799896,0.60000002,192,154,105,0.000000,13.000000,-140676.625000,1.000000,2.000000,53.000000,1.000000
152.50700378,-48.77299881,1.88300002,233,170,119,0.000000,28.000000,-140676.625000,1.000000,2.000000,59.000000,1.000000
155.65800476,-54.13299942,0.54900002,198,154,117,0.000000,15.000000,-140676.625000,1.000000,2.000000,53.000000,1.000000
155.53399658,-53.54600143,3.20799994,192,142,115,0.000000,8.000000,-140676.625000,1.000000,2.000000,66.000000,1.000000
152.81199646,-48.91099930,1.91700006,228,181,127,0.000000,15.000000,-140676.625000,1.000000,2.000000,59.000000,1.000000
156.03700256,-54.25099945,0.60000002,193,152,108,0.000000,21.000000,-140676.609375,1.000000,2.000000,53.000000,1.000000
153.19099426,-49.03799820,1.92400002,228,171,126,0.000000,21.000000,-140676.609375,1.000000,2.000000,59.000000,1.000000
156.42100525,-54.33300018,0.59700000,203,162,116,0.000000,23.000000,-140676.609375,1.000000,2.000000,53.000000,1.000000
153.57299805,-49.11999893,1.94500005,231,177,133,0.000000,21.000000,-140676.609375,1.000000,2.000000,59.000000,1.000000
156.68400574,-54.46200180,0.63900000,194,145,104,0.000000,24.000000,-140676.609375,1.000000,2.000000,53.000000,1.000000
155.88000488,-52.25500107,6.34200001,174,138,104,0.000000,7.000000,-140676.609375,1.000000,2.000000,81.000000,1.000000
153.83500671,-49.25799942,1.93900001,217,163,116,0.000000,32.000000,-140676.609375,1.000000,2.000000,59.000000,1.000000
156.99499512,-54.61700058,0.66299999,167,130,103,0.000000,14.000000,-140676.593750,1.000000,2.000000,53.000000,1.000000
156.86900330,-54.02899933,3.29999995,226,168,131,0.000000,24.000000,-140676.593750,1.000000,2.000000,66.000000,1.000000
157.36399841,-54.74200058,0.64300001,211,168,123,0.000000,12.000000,-140676.593750,1.000000,2.000000,53.000000,1.000000
157.23599243,-54.14599991,3.31399989,204,161,127,0.000000,34.000000,-140676.593750,1.000000,2.000000,66.000000,1.000000
157.74099731,-54.79000092,0.64300001,214,175,142,0.000000,17.000000,-140676.578125,1.000000,2.000000,53.000000,1.000000
157.61300659,-54.19699860,3.30599999,219,170,140,0.000000,8.000000,-140676.578125,1.000000,2.000000,66.000000,1.000000
154.88699341,-49.57400131,2.00200009,185,147,111,0.000000,18.000000,-140676.578125,1.000000,2.000000,59.000000,1.000000
158.02299500,-54.91400146,0.68599999,191,153,116,0.000000,17.000000,-140676.578125,1.000000,2.000000,53.000000,1.000000
157.89399719,-54.32500076,3.29699993,201,158,126,0.000000,12.000000,-140676.578125,1.000000,2.000000,66.000000,1.000000
155.16600037,-49.70299911,1.99600005,211,173,126,0.000000,8.000000,-140676.578125,1.000000,2.000000,59.000000,1.000000
158.21200562,-54.47900009,3.33699989,208,158,123,0.000000,30.000000,-140676.562500,1.000000,2.000000,67.000000,1.000000
158.58099365,-54.61800003,3.36999989,218,170,134,0.000000,29.000000,-140676.562500,1.000000,2.000000,67.000000,1.000000
155.71099854,-49.75999832,2.03399992,187,145,107,0.000000,8.000000,-140676.562500,1.000000,2.000000,60.000000,1.000000
159.07200623,-55.27199936,0.73699999,192,140,103,0.000000,10.000000,-140676.546875,1.000000,2.000000,53.000000,1.000000
158.94900513,-54.69200134,3.36999989,221,174,148,0.000000,37.000000,-140676.546875,1.000000,2.000000,67.000000,1.000000
159.31700134,-55.40100098,0.68900001,214,160,124,0.000000,5.000000,-140676.546875,1.000000,2.000000,53.000000,1.000000
159.19299316,-54.80699921,3.39499998,213,168,145,0.000000,34.000000,-140676.546875,1.000000,2.000000,67.000000,1.000000
156.61500549,-50.10599899,2.03800011,179,146,105,0.000000,38.000000,-140676.531250,1.000000,2.000000,60.000000,1.000000
159.83799744,-55.40800095,0.81000000,212,173,134,0.000000,6.000000,-140676.531250,1.000000,2.000000,54.000000,1.000000
156.98599243,-50.23500061,2.05699992,186,147,106,0.000000,32.000000,-140676.531250,1.000000,2.000000,60.000000,1.000000
160.24499512,-55.15800095,3.45000005,213,169,132,0.000000,14.000000,-140676.515625,1.000000,2.000000,67.000000,1.000000
157.36599731,-50.30500031,2.07399988,200,158,118,0.000000,45.000000,-140676.515625,1.000000,2.000000,60.000000,1.000000
160.51499939,-55.29899979,3.44000006,194,155,116,0.000000,5.000000,-140676.515625,1.000000,3.000000,67.000000,1.000000
160.48899841,-55.62500000,0.77200001,214,169,128,0.000000,7.000000,-140676.515625,2.000000,3.000000,54.000000,1.000000
157.63299561,-50.44200134,2.09400010,211,159,112,0.000000,26.000000,-140676.515625,1.000000,2.000000,60.000000,1.000000
160.78999329,-55.79499817,0.77999997,218,173,140,0.000000,24.000000,-140676.500000,1.000000,2.000000,54.000000,1.000000
160.67599487,-55.22100067,3.47099996,196,157,118,0.000000,8.000000,-140676.500000,1.000000,2.000000,67.000000,1.000000
161.12600708,-55.93700027,0.78299999,208,163,130,0.000000,12.000000,-140676.500000,1.000000,2.000000,54.000000,1.000000
161.01400757,-55.36999893,3.45000005,195,152,117,0.000000,13.000000,-140676.500000,1.000000,2.000000,67.000000,1.000000
161.47500610,-56.03400040,0.80400002,192,142,109,0.000000,24.000000,-140676.484375,1.000000,2.000000,54.000000,1.000000
161.36099243,-55.46300125,3.47600007,185,142,110,0.000000,25.000000,-140676.484375,1.000000,2.000000,67.000000,1.000000
161.60099792,-55.59600067,3.46199989,210,164,128,0.000000,20.000000,-140676.484375,1.000000,2.000000,67.000000,1.000000
158.70599365,-50.73199844,2.10500002,194,152,112,0.000000,6.000000,-140676.484375,1.000000,2.000000,60.000000,1.000000
161.86900330,-56.06999969,0.87699997,227,169,131,0.000000,9.000000,-140676.484375,1.000000,2.000000,54.000000,1.000000
158.99600220,-50.88100052,2.14700007,223,168,127,0.000000,24.000000,-140676.484375,1.000000,2.000000,60.000000,1.000000
162.22900391,-56.21699905,0.80100000,209,175,129,0.000000,14.000000,-140676.468750,1.000000,2.000000,54.000000,1.000000
159.35499573,-51.01399994,2.19400001,219,174,119,0.000000,11.000000,-140676.468750,1.000000,2.000000,60.000000,1.000000
162.59100342,-56.30199814,0.81900001,217,170,128,0.000000,5.000000,-140676.468750,1.000000,2.000000,54.000000,1.000000
159.71499634,-51.10499954,2.17899990,214,167,125,0.000000,21.000000,-140676.468750,1.000000,2.000000,60.000000,1.000000
162.83000183,-56.44499969,0.86299998,210,160,133,0.000000,23.000000,-140676.453125,1.000000,2.000000,54.000000,1.000000
162.72099304,-55.88000107,3.54200006,220,174,141,0.000000,9.000000,-140676.453125,1.000000,2.000000,68.000000,1.000000
162.02600098,-54.27199936,6.40199995,204,151,120,0.000000,5.000000,-140676.453125,1.000000,2.000000,82.000000,1.000000
159.96000671,-51.26599884,2.20400000,215,161,117,0.000000,7.000000,-140676.453125,1.000000,2.000000,60.000000,1.000000
163.00999451,-56.06999969,3.55200005,210,168,126,0.000000,27.000000,-140676.453125,1.000000,2.000000,68.000000,1.000000
160.10400391,-51.20800018,2.19899988,204,147,104,0.000000,26.000000,-140676.453125,1.000000,2.000000,60.000000,1.000000
163.31799316,-56.54100037,0.95899999,217,175,133,0.000000,5.000000,-140676.437500,1.000000,2.000000,55.000000,1.000000
162.51400757,-54.36999893,6.47100019,219,173,123,0.000000,6.000000,-140676.437500,1.000000,2.000000,82.000000,1.000000
160.44200134,-51.37099838,2.20700002,207,164,122,0.000000,38.000000,-140676.437500,1.000000,2.000000,60.000000,1.000000
163.67199707,-56.64199829,0.89800000,212,160,123,0.000000,12.000000,-140676.437500,1.000000,2.000000,54.000000,1.000000
162.86700439,-54.47499847,6.39400005,210,163,121,0.000000,6.000000,-140676.437500,1.000000,2.000000,82.000000,1.000000
160.78999329,-51.45700073,2.21399999,195,156,115,0.000000,31.000000,-140676.437500,1.000000,2.000000,61.000000,1.000000
163.81100464,-56.22000122,3.57200003,218,165,125,0.000000,9.000000,-140676.421875,1.000000,2.000000,68.000000,1.000000
163.11799622,-54.61399841,6.45499992,207,157,120,0.000000,6.000000,-140676.421875,1.000000,2.000000,82.000000,1.000000
164.10899353,-56.40999985,3.58299994,212,170,132,0.000000,22.000000,-140676.421875,1.000000,2.000000,68.000000,1.000000
161.19599915,-51.55099869,2.24600005,194,152,114,0.000000,36.000000,-140676.421875,1.000000,2.000000,61.000000,1.000000
161.55000305,-51.73099899,2.27600002,225,172,130,0.000000,13.000000,-140676.406250,1.000000,2.000000,61.000000,1.000000
163.98899841,-54.87300110,6.52199984,209,161,121,0.000000,6.000000,-140676.406250,1.000000,2.000000,82.000000,1.000000
164.91799927,-56.64799881,3.63100004,210,168,130,0.000000,40.000000,-140676.390625,1.000000,2.000000,68.000000,1.000000
162.00700378,-51.81100082,2.27200007,202,167,137,0.000000,13.000000,-140676.390625,1.000000,2.000000,61.000000,1.000000
162.49600220,-51.95600128,2.29800010,195,165,127,0.000000,14.000000,-140676.375000,1.000000,2.000000,61.000000,1.000000
162.83900452,-52.08599854,2.32599998,198,152,118,0.000000,34.000000,-140676.375000,1.000000,2.000000,61.000000,1.000000
165.17100525,-55.28699875,6.48799992,204,159,120,0.000000,6.000000,-140676.359375,1.000000,2.000000,82.000000,1.000000
163.22599792,-52.24900055,2.34400010,201,158,116,0.000000,18.000000,-140676.359375,1.000000,2.000000,61.000000,1.000000
163.78799438,-52.37500000,2.35400009,201,158,124,0.000000,38.000000,-140676.343750,1.000000,2.000000,61.000000,1.000000
166.14300537,-55.59999847,6.47399998,213,165,125,0.000000,5.000000,-140676.343750,1.000000,2.000000,82.000000,1.000000
164.21000671,-52.55699921,2.38400006,209,166,123,0.000000,22.000000,-140676.328125,1.000000,2.000000,61.000000,1.000000
166.68400574,-55.75000000,6.68599987,242,187,146,0.000000,6.000000,-140676.328125,1.000000,2.000000,83.000000,1.000000
164.79699707,-52.68500137,2.40300012,209,157,118,0.000000,16.000000,-140676.312500,1.000000,2.000000,61.000000,1.000000
167.29699707,-55.96200180,6.61600018,233,170,126,0.000000,7.000000,-140676.296875,1.000000,2.000000,83.000000,1.000000
165.37199402,-52.95600128,2.42000008,202,153,113,0.000000,20.000000,-140676.296875,1.000000,2.000000,61.000000,1.000000
165.80099487,-53.08200073,2.48499990,216,162,128,0.000000,12.000000,-140676.281250,1.000000,2.000000,62.000000,1.000000
165.94700623,-53.08900070,2.45799994,221,171,136,0.000000,36.000000,-140676.265625,1.000000,2.000000,62.000000,1.000000
166.54800415,-53.24599838,2.47399998,204,160,121,0.000000,36.000000,-140676.250000,1.000000,2.000000,62.000000,1.000000
169.04299927,-56.51300049,6.63600016,221,161,109,0.000000,8.000000,-140676.234375,1.000000,2.000000,83.000000,1.000000
167.11900330,-53.50199890,2.52600002,211,170,124,0.000000,17.000000,-140676.234375,1.000000,2.000000,62.000000,1.000000
169.62199402,-56.66899872,6.67199993,236,181,142,0.000000,9.000000,-140676.234375,1.000000,2.000000,83.000000,1.000000
169.73599243,-56.67800140,6.67700005,253,197,157,0.000000,6.000000,-140676.218750,1.000000,2.000000,83.000000,1.000000
167.59599304,-53.67599869,2.52099991,225,167,143,0.000000,9.000000,-140676.218750,1.000000,2.000000,62.000000,1.000000
169.86999512,-56.71799850,6.61899996,246,188,150,0.000000,5.000000,-140676.218750,1.000000,2.000000,83.000000,1.000000
167.73500061,-53.71699905,2.56200004,232,178,140,0.000000,7.000000,-140676.218750,1.000000,2.000000,62.000000,1.000000
167.91799927,-53.72800064,2.53600001,210,167,124,0.000000,72.000000,-140676.203125,1.000000,2.000000,62.000000,1.000000
168.34700012,-53.90800095,2.68000007,218,170,130,0.000000,8.000000,-140676.187500,1.000000,2.000000,63.000000,1.000000
168.49400330,-53.95899963,2.59200001,230,185,146,0.000000,14.000000,-140676.187500,1.000000,2.000000,62.000000,1.000000
168.67700195,-53.95000076,2.58100009,219,170,127,0.000000,34.000000,-140676.171875,1.000000,2.000000,62.000000,1.000000
169.13000488,-54.17699814,2.60899997,220,167,127,0.000000,14.000000,-140676.156250,1.000000,2.000000,63.000000,1.000000
169.62800598,-54.28900146,2.62400007,217,165,126,0.000000,48.000000,-140676.140625,1.000000,2.000000,63.000000,1.000000
169.69200134,-54.30799866,2.63299990,210,157,113,0.000000,26.000000,-140676.125000,1.000000,2.000000,63.000000,1.000000
169.82600403,-54.36899948,2.64000010,207,157,120,0.000000,18.000000,-140676.125000,1.000000,2.000000,63.000000,1.000000
170.01300049,-54.38700104,2.63400006,194,156,117,0.000000,50.000000,-140676.109375,1.000000,2.000000,63.000000,1.000000
170.22500610,-54.38600159,2.63100004,211,152,122,0.000000,5.000000,-140676.109375,1.000000,2.000000,63.000000,1.000000
170.31900024,-54.47000122,2.61599994,204,148,115,0.000000,15.000000,-140676.109375,1.000000,2.000000,63.000000,1.000000
170.44999695,-54.57600021,2.67300010,207,158,118,0.000000,21.000000,-140676.093750,1.000000,2.000000,63.000000,1.000000
170.62899780,-54.63100052,2.73499990,185,145,109,0.000000,11.000000,-140676.093750,1.000000,2.000000,63.000000,1.000000
170.82899475,-54.63999939,2.67300010,181,143,104,0.000000,29.000000,-140676.078125,1.000000,2.000000,63.000000,1.000000
170.92999268,-54.72800064,2.71099997,182,147,109,0.000000,31.000000,-140676.078125,1.000000,2.000000,63.000000,1.000000
170.91000366,-54.62699890,2.62899995,190,153,111,0.000000,5.000000,-140676.062500,1.000000,2.000000,63.000000,1.000000
171.09199524,-54.75000000,2.68799996,188,145,110,0.000000,34.000000,-140676.062500,1.000000,2.000000,63.000000,1.000000
171.28199768,-54.80199814,2.70000005,184,137,111,0.000000,33.000000,-140676.046875,1.000000,2.000000,63.000000,1.000000
171.35899353,-54.89799881,2.73099995,192,140,116,0.000000,6.000000,-140676.046875,1.000000,2.000000,63.000000,1.000000
171.33799744,-54.76499939,2.70499992,181,134,108,0.000000,14.000000,-140676.031250,1.000000,2.000000,63.000000,1.000000
171.53199768,-54.87300110,2.73499990,210,163,135,0.000000,23.000000,-140676.031250,1.000000,2.000000,63.000000,1.000000
171.72599792,-54.94100189,2.73200011,215,166,133,0.000000,30.000000,-140676.015625,1.000000,2.000000,63.000000,1.000000
171.78999329,-54.99700165,2.72099996,231,179,140,0.000000,11.000000,-140676.000000,1.000000,2.000000,63.000000,1.000000
172.00199890,-54.99100113,2.72300005,239,180,140,0.000000,20.000000,-140675.984375,1.000000,2.000000,63.000000,1.000000
172.10400391,-55.09099960,2.75300002,223,167,108,0.000000,32.000000,-140675.984375,1.000000,2.000000,63.000000,1.000000
172.32699585,-55.08700180,2.75500011,244,185,141,0.000000,29.000000,-140675.968750,1.000000,2.000000,63.000000,1.000000
172.44299316,-55.19499969,2.77900004,229,177,129,0.000000,43.000000,-140675.937500,1.000000,2.000000,63.000000,1.000000
172.57499695,-55.22200012,2.79600000,219,163,114,0.000000,35.000000,-140675.921875,1.000000,2.000000,63.000000,1.000000
172.58200073,-55.19900131,2.77399993,210,152,102,0.000000,49.000000,-140675.921875,1.000000,2.000000,63.000000,1.000000
172.84300232,-55.27299881,2.78900003,242,172,120,0.000000,34.000000,-140675.906250,1.000000,2.000000,63.000000,1.000000
172.80299377,-55.23300171,2.81200004,241,171,119,0.000000,7.000000,-140675.890625,1.000000,2.000000,63.000000,1.000000
172.80700684,-55.23099899,2.76399994,241,171,119,0.000000,8.000000,-140675.890625,1.000000,2.000000,63.000000,1.000000
173.07099915,-55.32199860,2.79500008,225,161,113,0.000000,31.000000,-140675.875000,1.000000,2.000000,63.000000,1.000000
173.31300354,-55.51399994,2.82399988,238,179,123,0.000000,7.000000,-140675.859375,1.000000,2.000000,63.000000,1.000000
173.37899780,-55.42399979,2.80900002,231,171,117,0.000000,29.000000,-140675.843750,1.000000,2.000000,63.000000,1.000000
173.34899902,-55.40200043,2.77600002,230,173,118,0.000000,5.000000,-140675.843750,1.000000,2.000000,63.000000,1.000000
173.40100098,-55.42499924,2.83500004,223,166,113,0.000000,21.000000,-140675.828125,1.000000,2.000000,63.000000,1.000000
173.75999451,-55.59199905,2.86199999,250,190,140,0.000000,22.000000,-140675.812500,1.000000,2.000000,64.000000,1.000000
173.76300049,-55.59999847,2.86100006,250,190,140,0.000000,19.000000,-140675.812500,1.000000,2.000000,64.000000,1.000000
173.83700562,-55.65399933,2.88000011,239,181,131,0.000000,8.000000,-140675.796875,1.000000,2.000000,64.000000,1.000000
173.96899414,-55.68999863,2.84299994,214,162,114,0.000000,18.000000,-140675.796875,1.000000,2.000000,64.000000,1.000000
174.08999634,-55.65700150,2.82399988,222,165,120,0.000000,17.000000,-140675.781250,1.000000,2.000000,63.000000,1.000000
174.10200500,-55.67499924,2.86299992,221,164,121,0.000000,29.000000,-140675.781250,1.000000,2.000000,64.000000,1.000000
174.18400574,-55.72700119,2.85899997,240,181,141,0.000000,28.000000,-140675.765625,1.000000,2.000000,64.000000,1.000000
174.31300354,-55.72100067,2.85500002,239,182,139,0.000000,35.000000,-140675.765625,1.000000,2.000000,64.000000,1.000000
174.58000183,-55.81000137,2.87299991,230,175,134,0.000000,18.000000,-140675.734375,1.000000,2.000000,64.000000,1.000000
174.69500732,-55.85200119,2.86599994,216,158,118,0.000000,18.000000,-140675.734375,1.000000,2.000000,64.000000,1.000000
174.97599792,-55.89799881,2.90300012,217,159,111,0.000000,11.000000,-140675.718750,1.000000,2.000000,64.000000,1.000000
175.43600464,-56.09999847,2.93700004,228,168,118,0.000000,45.000000,-140675.687500,1.000000,2.000000,64.000000,1.000000
175.62100220,-56.15499878,2.92199993,246,186,132,0.000000,22.000000,-140675.671875,1.000000,2.000000,64.000000,1.000000
175.83700562,-56.16099930,2.93499994,234,171,130,0.000000,7.000000,-140675.671875,1.000000,2.000000,64.000000,1.000000
175.90499878,-56.18999863,2.94199991,225,162,119,0.000000,10.000000,-140675.656250,1.000000,2.000000,64.000000,1.000000
176.02999878,-56.29899979,2.93700004,234,174,137,0.000000,36.000000,-140675.656250,1.000000,2.000000,64.000000,1.000000
176.22399902,-56.39500046,2.95199990,214,160,122,0.000000,10.000000,-140675.640625,1.000000,2.000000,64.000000,1.000000
176.43200684,-56.41999817,2.97199988,240,180,144,0.000000,16.000000,-140675.640625,1.000000,2.000000,64.000000,1.000000
176.53799438,-56.49499893,2.98200011,221,158,123,0.000000,46.000000,-140675.625000,1.000000,2.000000,64.000000,1.000000
177.18099976,-56.64599991,3.01300001,216,167,124,0.000000,33.000000,-140675.609375,1.000000,2.000000,65.000000,1.000000
177.32699585,-56.74000168,3.03699994,218,171,127,0.000000,20.000000,-140675.609375,1.000000,2.000000,65.000000,1.000000
-77.22100067,21.08699989,2.12700009,144,114,88,0.000000,31.000000,-140681.046875,1.000000,3.000000,60.000000,1.000000
-77.34799957,20.82699966,-0.12400000,156,122,94,0.000000,31.000000,-140681.046875,2.000000,3.000000,49.000000,1.000000
-76.89900208,20.90399933,2.17400002,142,114,92,0.000000,6.000000,-140681.031250,1.000000,2.000000,60.000000,1.000000
